136.4636898448844 88.53417713136545 381.2137177423239 425.24212283655606 469.42815917043396 
471.16223942488114 134.98671203105235 52.4633192694272 215.02002450686564 40.01652146649755 
321.3998476572032 271.866335600366 104.61278660194533 360.1349744662595 27.076562400767816 
455.1815035391504 291.66944082723455 277.92251812746434 68.70363381215714 38.05727378529703 
430.78519045410957 31.526191121942443 239.9631630929218 154.86760158414535 435.2822528164183 
87.22323469570688 341.3137320276527 272.57941403006265 359.45072925785087 85.41628873303691 
513.7144412321703 82.27389699793355 401.5292795391538 429.8292559934653 147.3855223368912 
256.9152702937009 373.51914692016857 203.4974550561895 186.6993888326691 33.96095430801188 
533.9255919865612 245.14614071713444 602.2957422020794 531.4067386492056 429.5201786182076 
569.550882733085 551.5146025337926 55.8608068658655 342.21792099527096 65.47355532268504 
498.24090259474565 211.24025008691382 487.16286467904 554.767942408783 313.25451902810653 
366.6839639226069 458.11590949788507 46.24825056603961 126.17937518139284 192.27555698406113 
366.2386395003822 367.91488781579807 50.12544899960368 121.17009830944103 468.36698111700764 
511.1306437699398 450.11735178016374 546.7183901689697 430.8681552791118 570.3414549221405 
376.4033425169796 113.1825801258471 125.17513355688193 511.9353063306458 333.7384123379656 
208.63683011767512 401.0918539586313 355.8330913927653 107.73527247090267 118.64672679537318 
33.96334833859498 103.40511953600367 519.3769562379102 449.32136993125107 191.80429186542472 
295.30708011498103 128.78475675468349 178.3316756117293 318.47978228174196 32.82918363150118 
259.33534047487893 442.4887907932369 79.03220362376356 246.3522572744805 63.22070014127466 
120.47625875478889 563.2477273215029 344.50449354535533 99.54473811025305 219.32979179264007 
493.556372403787 527.6126334360279 46.050210666457744 23.258357745740526 133.35930736869398 
599.041358920891 315.56981088313086 513.4002981165912 541.8771411000665 58.01460917476707 
98.29508935253997 117.10824249075483 371.6129435052327 207.51258186725534 100.95706633792487 
395.356621956237 354.5238103098164 160.83811159358143 404.012113971968 426.8654791707693 
572.9945651632737 380.44635219533313 207.9270380491397 197.5342928415895 361.70765041949755 
532.6312806875898 389.6570140328451 453.779688609337 36.502518114184355 191.6629450754809 
340.4101414218347 428.3706423419497 196.31875578758374 276.9691212981774 505.79230238924214 
397.35503441913437 494.31629890746274 256.9551361804621 599.4263078857838 576.671237009221 
524.2666560868691 103.05570491416445 411.1386997257478 617.0384722195656 218.30898611949385 
527.6123477246281 80.80839301298391 505.71987793216726 302.1645551662164 589.1703012997211 
458.97048719238717 233.75166604814854 503.9034801708555 298.78860139526626 125.26932726607363 
537.2325468812227 562.3574969450844 410.9571046729049 185.85442509168885 571.2668088941462 
231.27241313137245 132.71415747671128 520.8129602038293 525.1549995305179 25.294140946102832 
234.55879136328016 102.73263547890693 537.4260210190112 403.8818581530231 596.7509698073197 
357.48872778384293 619.3040728123443 239.24233969067143 574.5938597747908 488.34898822951544 
445.20464345837934 364.37880723825884 516.2918090478142 234.49006676645752 418.85284498485714 
147.3484866651484 516.9776408951743 485.0194599605538 173.61820765854054 387.8223145257247 
442.5032464859754 119.59649128334287 415.6594561880372 182.0406035651863 606.5870642885399 
196.74612158899856 368.47314830261405 152.25852414045005 234.91225250852162 360.9595237956896 
27.439763831498027 586.775099762992 599.7692645077235 89.67487522656863 382.9612816781688 
586.6393277986538 58.8366645500347 151.2323418612242 320.78364952985515 265.12742304457925 
181.69383570144757 394.89697170340105 458.09810770081816 396.0847907479624 297.6593591160403 
344.0431272989979 324.0151340478506 57.22636468855243 548.5488819377751 213.59433107234017 
43.00466290253868 164.48940415757053 79.94611446919889 122.812238451357 429.8962779034899 
543.5321038230371 554.5808140700302 224.52849175025335 355.0333758898973 534.47203431824 
121.40737408498019 421.9131027250811 588.1747379890902 75.95806705668409 323.9779154969241 
293.87338052135357 79.7374916483966 164.6695552410939 581.7035666599973 600.1768160006445 
187.97513667243135 536.336491625033 27.597600820966854 87.39188999148308 110.68431950279378 
364.3743926429711 236.09435371191424 66.74056066831037 530.0342210262688 122.22775016676835 
124.53749704526574 584.9560444462886 229.11221085607835 505.5156619236083 261.931532079677 
359.23974841374064 588.7796199612284 460.07345948160736 368.55020872791107 197.41108938941585 
23.431271177456985 111.98414600380846 339.9956404979003 174.3439011641689 164.25256136029915 
145.6932436297173 279.3018520305699 185.78323206947206 148.56787329457035 126.30098338449405 
570.6764803517825 450.6362836061791 523.8741245318332 212.12537041973368 178.47441577581347 
482.8311447544668 25.15290493471714 53.630124541173664 504.997206395726 603.8372828047434 
434.05544372344633 224.81102435691372 90.71173940680919 616.9412441647753 78.5536834598598 
283.1345432427764 390.4822958896975 614.3715930380464 481.6515005986041 304.12244403919374 
409.4093447778362 38.36668000939934 417.74973896108753 286.67617150241597 131.86918604695916 
267.27904044520835 385.25876048575054 375.23468707268586 427.3479384913453 547.8101443842346 
454.05232713173825 194.85959839321995 466.66370943326916 44.46927547467183 396.3565227598753 
545.3412504943814 432.17075018445007 327.3503366294552 359.66755121977343 50.41955508096497 
55.53926920302508 369.32014090827283 490.29201664895874 508.2133723584735 466.70459500614146 
273.712249048904 466.1034998611063 38.9520743148103 187.57973182060817 103.6197825162228 
47.10928269843073 76.10312624501022 254.12459323000041 133.88119749556836 102.42080623755224 
196.98944507553438 600.3661311442438 596.8526051610128 122.22175495702317 538.9902237542569 
587.9627660494773 343.0605387086103 373.32730358200257 497.41896685162294 514.9070810543651 
587.8288195403828 206.9286377613324 551.1726099233884 486.9603510935464 264.97323086414616 
377.1161109489178 412.24531131822977 385.41290109683007 258.65793272687904 578.7750279452595 
45.20078451028456 614.7637884889035 334.5070808775805 363.44770804368335 52.69682669513645 
463.913638425272 341.06579358368816 341.75569753770964 473.155889377565 64.4645607529883 
602.703754453419 130.97562807191542 186.67538692270733 79.72059712227932 175.055564095666 
456.362791758407 475.27150386233444 607.9827121742474 184.09151759011962 164.81594295230258 
233.55018351684373 333.73188898946336 419.91229922082505 59.47716067987837 475.8992330682565 
110.29417731973817 306.3618034172993 413.8605274819376 536.2950890640234 307.58150065705104 
517.5513543093506 174.10341843292127 306.8180756689125 608.5017890299733 462.38943002170896 
607.9339996361274 210.96995445464273 287.6323195774894 208.2104993907406 108.94885959565903 
357.8874326416445 155.75007765971276 564.596643605563 614.7944577020878 473.54546881574765 
303.81269421996797 598.4858789098681 47.84604054120303 555.0439759789532 529.9838570943566 
401.6608573371223 536.9779918947794 544.0719174192798 283.2969263268631 281.7115889241986 
529.0191285619346 465.64222091525755 507.55045896113904 297.56617977084363 248.48689445896434 
228.1916185187684 319.0294225408542 610.683055046448 314.1940411221487 231.13884190215236 
201.64582514149527 272.9986747225695 471.32165319410154 475.9951329917853 153.09258139863397 
22.724224543722343 147.5522634803495 227.1207457432071 565.6042663596246 409.0853660108017 
291.8566881689457 418.22118867363076 574.9185363906183 517.0984161309509 104.5284922026948 
350.67692424004946 161.03205225013542 313.4770362378909 417.0597824520184 179.80039537817558 
434.3445092174968 184.76297498010476 430.4519570460927 435.1139745910241 290.78465856118936 
388.77469891173774 470.55539014223285 170.7427103727227 369.512001231388 290.46763906788823 
169.03157767314323 292.01550658949566 196.78785477742514 403.2998556667123 228.5316026526041 
154.36863195514658 349.6097113028943 207.19672862061006 480.68475403324896 280.6451460491536 
22.70245781907723 464.2085877576261 295.4908224208763 192.88413454435576 332.46022928788386 
