400.9587981133077 175.00032273699185 134.8860089292912 76.6930288788679 57.864249768426404 
497.29255530498045 133.09581097107753 325.0031210011914 478.72573681108054 123.30430169802769 
479.5396854385294 128.8720137905746 483.4287756037164 95.6876435824534 51.874733660030195 
208.73905693224825 245.9161189278192 373.2371914096744 206.88803492192085 283.4160016042573 
334.68510027523024 288.7534342565917 175.37931963296666 204.84544524164227 204.7314573936375 
361.184595084257 34.46676219760757 338.7394438267577 174.14279166389534 26.500258354198493 
353.0189579747126 318.05137703720936 43.544903705860605 476.74974823178934 230.91626977049356 
421.2341236432099 141.60394199827468 421.7584386343636 77.84463431933274 452.2378671791221 
204.78764588757096 212.91523039849264 102.32498067356637 124.20037693944401 124.58866819991209 
393.5040750756126 106.68136213184869 73.78318490684254 220.41331471069003 365.03289611441494 
308.65089774778545 258.10652973952114 321.33856275121406 484.0129769289962 35.3387554336209 
111.23633568862694 64.94066267920728 28.64179780744024 260.22117956840975 462.176384420336 
446.3984117355436 99.84272271066435 78.89975414726568 341.3186086119038 276.0742065734619 
146.11435027813934 344.3099900627943 427.3049074401902 328.77597515855877 426.64288166154165 
307.0874163794307 11.25332715026838 92.90318000747415 352.1305541962365 231.79426791707996 
480.3019807455949 152.67991523247431 267.79324393719907 84.70986332310537 447.42365802077023 
361.67841229442706 367.98037920153115 13.887836729576321 279.46431743914013 90.83579439214871 
56.870309122373385 467.18337305417606 400.3586010660746 459.1675024240363 194.6942358287577 
418.95347965652115 371.47546347733555 80.38028087873832 293.94181327800646 301.1335524417106 
376.0470521280792 483.588008755037 355.00161448748094 359.39320579292246 359.6339636295187 
491.3334166045969 155.68943980712535 280.0746728536486 203.58001714408152 463.11882951143144 
434.11781326592956 58.61666731029052 433.40963581847564 437.6490553328392 29.35957630382318 
205.167121229124 89.12098119078826 331.9896287961756 169.35882533928475 508.08762676842184 
509.32797246922587 480.8433705887306 220.54228502340388 201.05295534154865 406.2043020910054 
424.148527914432 338.58429285016507 504.44860498639576 233.18262788777898 476.2015562374824 
84.77836403911009 136.76960423065077 472.3618856280404 234.50772300497295 197.46867999821126 
16.7236610440089 93.57613695618276 311.56257444213117 332.9944804589843 501.74171752875793 
62.07781826755975 197.767442486955 215.60048279954484 133.59923363313297 396.7886379011569 
288.6821260901469 260.76653589034487 486.85105564790615 406.07125168483617 234.81783826542494 
361.40958354952056 340.78319649589736 352.9747891261159 397.1736164460599 151.41103690916867 
20.584610817580497 426.90735655816 316.7191571475526 185.92276861522316 378.4419752127946 
23.688772073162546 231.02741032804323 102.90471267825107 10.260783884443171 460.9363866066092 
296.2599056222388 455.3473611289352 428.715758868321 380.73746579673036 297.7080303564488 
28.63214502085264 38.33369510514477 216.5609236526922 257.09327249870955 82.48292760438224 
383.31196678163633 226.36174482009878 469.8296596274595 81.96160839021992 263.7756773609934 
218.83118822586593 130.4515300073235 106.96115160801317 441.17671325721005 224.7457996919455 
329.4096023598585 254.64895954749633 278.53776180467617 490.3685162897658 329.43870020994655 
474.31385585886414 286.244423092359 294.8547521891255 154.70001171400943 399.0697445860876 
169.08847258870745 218.61693131263226 150.9012445760229 363.86910197649 95.26561646812513 
114.60022616426146 299.59762028743773 424.2793631149979 33.03056932244751 159.42288991203117 
194.8769294612465 315.475416305738 125.7128073441408 486.3341832372387 215.63172288146265 
415.9013156781698 200.79604645678262 26.943063238125166 51.621819060057405 405.0541976977168 
133.76448182986883 313.6707737361565 366.53016194442927 429.8437467513739 412.4191549031814 
119.88036643704497 506.21532505144836 218.980169411222 372.367234763312 439.63642267986137 
285.36352058250856 209.8438847105875 199.38765077809123 434.04797914932834 10.74351782904758 
377.2900204209371 419.37603842016216 96.14789375703336 24.267400203483326 78.84082208140686 
221.57208873345172 11.26161408845854 174.06040501754427 355.71916535189627 85.77263217751617 
214.81864795149986 246.74285357403807 254.17623746343094 309.2332753573237 274.5597915556321 
19.12743432048785 356.5665448091122 153.9620294068692 349.09318016410157 212.53487270771288 
336.62336832871296 460.1078193146986 99.75237693578691 257.93110521546055 478.3877156968182 
196.14713042051463 457.70958342556116 405.0891290239083 223.24408195737533 41.57185645958488 
373.2971092286989 333.9786783207542 434.5159074270696 222.78149735070485 299.4901879634522 
51.58672363407151 194.07403333451887 447.8828567861143 286.50433295669364 482.37206811522606 
70.41124145808956 411.10025743395977 189.4603161014604 285.55709304138463 422.635943536038 
462.499576548602 116.06984776729695 57.45975137327174 429.83817749229536 163.72906392000834 
366.2952014197141 202.0690590780859 160.28109173559994 75.48012947352933 240.9358273020501 
378.0669483599459 119.87094419013404 247.3712747928452 221.09502374740597 55.500004453970455 
344.35882339240135 505.95817333815893 145.47996751897224 340.3037824882956 224.72717419185682 
261.5731891164195 137.48803391067776 349.8831627402013 380.2142571589282 179.69725289397502 
159.0326595777044 47.95166803335781 18.429665216134975 187.56743413721432 193.06182411511983 
71.83299671139736 347.0140675741375 411.7232060026917 181.72231022191403 210.42778806707966 
226.29621880674367 267.194484517264 472.1227625893384 316.0488103323207 377.4004515754814 
44.034770820570216 146.64885808773442 58.327688691192975 85.25766476073193 461.9022652688363 
239.78349190675183 53.396322442971204 460.97311864228874 288.3922859976264 468.3853257507563 
26.546008194495478 453.0039334023387 241.8239687759397 227.37858411787403 291.56754114350525 
421.599554164956 24.18448761701918 227.8075080944095 454.9753225080862 215.95835079129765 
454.9338661105277 279.20829681372913 378.3186296798849 318.55327664317366 301.3734662045544 
343.2518677802499 56.78314793674926 246.07998177688827 26.281369688431358 110.61050835149588 
197.28594636948077 21.48026380183348 298.5177279289497 478.0014552809281 404.26699313306676 
156.49412148056973 237.30314982463457 427.3607167583801 506.3802548413387 209.19352154758317 
485.87340842163525 434.1000136633215 182.28767265580797 105.95091658074706 335.2133908695673 
156.40021034713595 168.75895930478978 42.29577713957787 243.57359823789537 282.49416753899226 
459.28053566059725 402.11211267437926 222.47218320112847 37.89229455923514 26.3765324844653 
259.6302630468158 184.88575388232064 479.5037967648101 225.84507538414795 153.66591653955803 
476.3320100942441 328.60677247607106 166.1130803423634 448.5596473714118 434.54730243198793 
219.62044960741582 450.9124463101937 221.26997702434736 448.4624002484762 366.63237724968286 
328.4809951581929 239.0731220136804 112.17933917453092 274.63399281191425 405.49119821621326 
217.32254789182002 194.65271244607072 247.41750290499792 208.9097379461885 171.72153309502917 
270.7784145358108 69.08727133208646 503.99118612275436 304.5616798843875 484.5929592081862 
361.13889451217466 401.60876138426687 489.3807287273054 40.28651833060519 242.05895281076621 
413.12546615555175 43.49262454664842 141.73284453794736 41.39865163162514 236.00853227733143 
102.84298629285625 226.23913840173665 445.2745158321866 178.39046416779274 38.64328216869261 
463.21893751922767 75.24915387623525 255.77972433524127 480.23652296059265 113.49142717525184 
127.54531116578232 118.1241749786605 133.64788383966513 469.9098588365806 324.54626994394164 
90.43048813318637 210.2732347243768 225.02259906623266 55.53578168312317 235.1425226133153 
405.158695270044 236.46970745902834 208.63061542737697 469.48188393614646 489.32446652335034 
285.8182793384663 320.85881487094775 395.9538107637989 205.58588021837198 51.53955984964375 
298.33693763167923 129.2213991563369 282.324958730522 141.83114341939122 83.49917206094197 
27.551378954860475 504.665497445411 157.98711993202252 271.33166837865883 362.0346137735769 
407.50489177852063 384.0196045264499 301.5650949591015 81.78428932606023 279.8556572727509 
