238.33971171947616 564.4444820251298 182.85959344683465 114.71232662850255 486.1688516334968 
64.30593159000301 353.8436714565636 571.7279119243374 261.5726556413843 406.00770812172107 
498.86115219951364 167.05026004446196 109.64462421736354 133.7624573492 308.1010628005096 
78.6961130134583 61.03800219190459 260.4077698677393 610.0659080633856 245.94583341631562 
457.35548526384287 25.837215516165053 158.11247832789007 262.6560295326223 150.9895217628463 
61.71804416947913 414.49023355562764 168.65573091427356 163.00716994322363 383.58920309759645 
90.47088082679147 35.319770145210114 32.673026290409204 581.4334931491583 351.16318487737044 
391.41311816384143 42.20410018449994 129.81767037319355 343.60648133709157 285.30008369652575 
450.35048567830694 488.69400688358155 56.73669536931472 129.61187831360044 418.39534363608095 
615.9574349738202 71.81881370041839 424.4665515336505 62.16804946072119 462.85157818068114 
511.9393311079441 205.33476619507059 213.66444433872104 173.317869300178 449.15243607075655 
411.6455034572266 25.867575844084215 258.38114399104614 377.8739528591561 122.22515423922735 
504.36301335195844 366.66567304070026 313.1163711444076 153.66379588596956 599.3422000991435 
422.1352946201154 22.159092164332787 467.70266966301085 241.58794075326605 250.15140843692274 
248.24739686801573 183.7361616612661 256.03537456906764 562.9426138125718 334.9140281478055 
142.5224949380621 36.50251064185899 525.5797044190169 409.51700434037457 317.1965025307706 
615.1838765022604 473.54980617113034 234.58761421954588 117.67847906318174 510.5011553966069 
503.0233307771618 185.58210784463458 184.57278903487486 86.90444843375684 204.90764320215834 
363.6309843131855 218.64990317831897 310.2180235316362 163.78095014377394 601.8795830068325 
142.00576002102864 532.124200755304 592.8005268224517 74.01377656114693 36.9920927450697 
87.37924939091415 425.67858801973296 163.5644319150678 459.0114351969575 237.35482564795666 
336.8199519591141 602.5843795562511 69.27074665358207 143.4990185591293 110.7149504847021 
38.29182106848466 283.5872127350109 504.31045697430176 131.6815776698952 336.27366922834597 
383.3400145483071 439.4193708743404 115.05041524796047 278.8427909903843 284.66191402585775 
354.3693951773772 350.8861884159348 467.14271466323095 111.96430002085378 269.6937276313488 
81.33978097636387 585.5937582048724 271.8894492461002 47.87950496130915 382.72425491427 
337.2740639435698 473.78383884377917 301.814165327535 473.40882407326785 508.8296620555469 
492.7862244392084 518.3073706902845 518.6243851427483 173.50686482164895 221.62409247844997 
80.28251194708324 153.2744975055217 590.9011005830488 307.21246445336703 221.23124079829807 
93.8454285688834 112.01577105014856 618.1487109878151 295.5251093213994 560.509035429089 
548.2249234900218 539.1970181124377 498.1777030951449 580.5123811241493 612.7334868494308 
438.8564363930035 517.6513712058268 593.9476015150746 193.1287784021483 206.1061507694057 
555.3020507355242 132.99599704639942 363.6171596177183 502.421682723193 495.05606107673657 
495.73990565925584 395.5393556154062 525.1559710847878 356.912531076231 285.636237230509 
374.75848230336385 28.378806169797514 517.8653477635207 37.745409095504016 184.51430897780278 
297.26863061080303 333.8382047301909 502.8093350401754 162.3375456723458 122.15023968855574 
546.2266076230516 310.2723548415611 489.6180361898705 368.27228277025915 606.6406159830078 
81.33873439073065 122.42044494133854 287.41826406175716 203.4419598455593 413.16054748124935 
422.1411978245182 67.44476993771691 23.66930586446854 505.249698937289 194.60063630600885 
265.8406612897645 533.9455572436726 149.20782416858444 196.16384542613412 323.4010967374613 
113.96081471748046 152.86773988972882 515.4840746569769 304.1099597391886 26.124654876362623 
619.9403822566825 189.4624850243734 557.3246046216607 454.9817598800795 256.26071493300924 
162.01800284334016 148.35654373896682 199.9843626304735 23.72669980090652 44.2608123120748 
453.5419326653322 155.2154296869616 213.0247100115327 284.66362941222184 65.89549798424149 
59.656238222035036 556.2354199751674 507.8241150169586 307.44175116706896 351.59220224457596 
550.4137442106885 530.4124400144889 594.3171554556009 110.75054627376902 313.23674789619383 
512.897615158357 250.7371294747297 221.7637398059475 41.813078688506664 455.6463615237078 
117.92144273099682 42.55231310889254 495.74781136095703 597.9883622686681 454.07185543082414 
611.2208916900032 475.5564023486729 228.84151511778649 171.4959288130255 575.0611370280828 
617.521569754851 367.4910128556604 206.97028175450038 575.2553817413244 176.08671097062228 
323.1159561843047 171.43768028958115 170.87470489577223 614.8797136951176 491.65730388065094 
375.13107933974425 335.76520433440265 577.4609379112386 498.62089590016956 474.2188378912665 
111.91612679448149 558.8890323787574 546.4092604856883 535.0646605413286 152.903813859019 
349.1983497892073 174.77594539774694 262.19593679729917 241.0049322849992 69.88178954707749 
192.9962407877559 86.07443785140042 211.5730316908234 174.4726848002766 492.347859486711 
156.76294833817474 68.2719026159935 134.3196655023906 397.49557187083497 39.581689978940766 
22.75972876164319 480.6480470744758 565.3731956740095 258.84815485379306 142.41760030225686 
424.0015915122927 190.15712119264975 385.79432590474 39.71624349638638 222.15851684215173 
222.92467837557098 516.7547101855539 386.8146720675054 217.61519496957547 64.5915038927564 
537.7193189241224 388.9845306461898 615.7315881675355 540.7212996121943 121.34495285764658 
500.45387597790216 224.63207435484108 316.80203776068396 152.51890455473588 616.2641170137354 
327.95527778764523 62.58213383787663 428.5685121806675 323.73389982152844 211.5468637686853 
24.060495037958912 30.210537839057633 147.12372548993545 415.18897211175 211.72401442207595 
309.33407763746646 469.09490367857813 530.4599395119527 563.6265750580917 389.71058768987484 
362.5567596269653 115.81817778428552 391.9028706202346 426.7250505982876 516.4957732712305 
50.003960939042784 171.31118266114453 422.2217816897849 189.38040287848483 594.8527958316104 
478.39876526569543 540.5588056739577 473.7352494960903 388.6141427662559 239.88332909859608 
21.964423696457796 505.4785783762081 140.86930831290942 198.8448432893853 339.28980757628045 
401.6166167444612 550.142218602043 257.32093706045174 394.25133507982713 259.8886217213249 
315.2966941909626 503.89994519810693 499.2564180827472 303.95634787145787 261.8142789834423 
284.9052950147417 240.90655982434672 207.73168914251664 554.0460252489472 27.764863159694958 
71.27146910148747 582.436307952951 314.5322380495423 475.15925473672246 423.02782008526657 
159.9869144316111 121.48385381198169 138.5425302676821 94.55660630680651 356.2999057506545 
205.51909425486159 329.6292927271881 601.0926909064906 248.109354890012 516.7493788623663 
278.4418702942237 538.0203631121748 546.8917771429553 583.3079627709033 396.5111896507308 
152.40860585872346 503.49165923067676 232.4153324339927 93.82536604581003 468.8799426289279 
27.04139838249196 595.0748482834448 108.11949319684045 65.9064745508396 251.76945296529573 
165.49259969696712 255.1004759618692 548.6268819542632 135.29037437062271 36.31510007103536 
458.2008045969786 114.27823834990174 21.970561976077057 180.77860402488423 466.4546977905833 
356.33629033449546 454.9634511226191 602.8637773524669 419.0907323354336 603.4579843302204 
