490.40059248196224 505.2713902288274 458.7576641704698 207.91116172770185 470.49189775341375 
248.06745823434994 208.3903756243814 89.04932280481974 503.68184756690175 143.1068228210812 
489.7289372447325 472.940790572753 224.7723248046781 182.79204292745703 485.6461413678439 
115.33626247746619 329.40401011347944 60.94282228889463 430.43908166417214 41.81277150700984 
126.95138549499856 355.09325270936273 52.51005107183037 446.27274934386986 185.9776791716957 
336.9934126644424 126.20868734808504 249.8739181310162 386.70264986359155 257.0183371838259 
509.7887533188221 228.59323262188673 319.93646810219684 73.1877568034559 171.43242667855995 
242.628014390799 96.93283486109044 220.49939429254533 330.2954379922285 225.83733223596613 
259.6143529854306 141.27919831922785 464.52598763064594 218.4268188803827 105.62332522752453 
422.2515002004648 63.210791466783206 351.0799818280451 367.6512141628686 509.03232016305736 
124.20108548191082 313.7392320083877 311.4996583970114 93.74885023958207 24.772084395038743 
467.2396321870432 442.32642562397433 396.48827689616394 17.068616431325058 380.9985925010988 
133.52923047419395 186.27912325280792 225.29039581525234 204.96460822921497 117.72060772291603 
12.30813615746045 146.56988979753586 409.02809951671424 404.24708544668067 241.0759016998136 
282.4959177013066 48.09759345232827 312.70550224683075 120.19438206408682 153.23611388517642 
336.04431939258234 436.90989566690763 214.5292630088641 71.21144053750416 436.718245588958 
478.76192885744643 185.39058426999514 176.2758263201138 505.2389074105851 16.47796596535921 
508.4744415918001 359.3539565883008 137.76388757954155 396.62596074180396 351.25913209974755 
326.4906078550544 12.938332239123042 64.42539923088863 455.5586993579097 180.26433988478357 
133.228389349195 271.7631220316914 495.9371268897846 20.518844952217442 199.34186754731113 
227.37848678807242 509.6862296380457 191.36517370841048 275.93913980545153 378.6707671792754 
119.07037665781044 426.4076044730111 31.837541592292233 139.58203672424713 391.54124725589026 
269.1467665502038 462.91215003511627 504.00858640957404 308.6255638808084 270.5126763540666 
130.8963837810848 109.19402387112825 439.18918651527173 90.4811889073343 76.28526162320425 
438.55721862331956 37.78044854594886 255.72672093969484 188.5446590078693 478.4081851866916 
413.7560108288225 450.2645209069019 441.829523423898 268.0049829260828 41.892303914772214 
341.0355470477972 29.414309558842547 407.40488463757237 10.185674966173 65.38715056942894 
55.038658552427115 212.56276976185165 25.544402461424745 132.4025170439413 64.37150400180008 
332.1300203392746 323.0756765917447 115.03225309722747 324.79669237838647 265.4069910682258 
449.67066001836463 134.98102304424594 386.7232744339968 345.90209688877087 17.59079022440101 
267.3024102094467 84.62360368475146 379.95076454187256 148.75838970076438 116.65522423688151 
261.0023054182195 254.84736975723337 455.45481598089265 442.17426149038226 121.49929329052416 
455.94310477153357 28.129154433739693 332.9087361230906 254.32990068410447 57.163184677478206 
26.02061504928809 60.781385191432825 472.2654417286261 374.3962888766487 91.29783356640274 
363.02157342624264 260.35695995663605 96.20941144328349 432.41811524271503 31.025255749802184 
237.60571418974374 331.3413854757232 47.409735934677336 307.5951939320217 165.7831782533734 
137.42796839529115 182.78052877728172 219.51431900213973 163.60391412606594 220.41186130276373 
248.75580780164952 97.40557992981024 409.4543149135032 119.09053072575043 36.54869659250086 
159.83118881840986 240.88036491168447 314.2552915488139 208.36611821467827 163.58457704739874 
184.0376329415566 326.8743294698452 155.8534884337014 247.12802848592517 71.30641152623961 
494.7732745114274 447.6812529755268 219.12926323631092 30.275430434693764 242.26605981005628 
211.9763965321683 169.04997900780293 252.2969714812956 282.18939781517827 424.302038181318 
401.7394931940677 73.81670507174925 314.79396947407554 196.88825955307604 322.986734898682 
28.681302627508057 412.9453716872041 289.81726178547774 27.983510189970573 154.6269255870067 
408.0880415445935 189.8660385801186 469.65230845589434 462.15182020452124 216.42525105669012 
227.70956081672915 208.79175567956497 98.97597355863729 169.76826795567123 329.1877829725782 
372.9928074174463 368.2911307716579 40.507824709386625 121.33941837678395 76.27877612494537 
384.0041847312868 75.1610770056309 238.905707863735 176.4224308977772 271.1770781284355 
475.9470783649049 302.0073188455038 371.8931934932898 444.86647124635914 394.843955864659 
160.69738702590996 265.387560666714 125.56600611587514 129.58087696311202 127.09399051301683 
145.89592942342875 374.45467006631884 336.0180408344131 40.79504992626797 366.2589365957524 
56.65407066053984 196.36762401575564 138.27881386988548 318.1664111142568 265.6979201526258 
107.70899945988926 321.99308355622094 131.55204665682345 367.4167761499462 80.25119232125144 
49.83628752190638 350.33700852943684 446.4412136836245 159.7958952944538 190.73353414346343 
461.47551913200056 63.526531248382966 313.8538913493464 317.0107119170261 279.255557632075 
356.90206543303333 345.86829981365247 29.269873242252324 311.80780388149793 145.8483917911999 
26.99757932907392 34.468908345146815 361.77599572639974 319.7052965837431 259.9114540374094 
322.9087488051582 238.10178131680254 420.51391997705133 214.05294611703545 414.8311184971456 
80.87714243405507 452.4959441527961 496.81955064113293 272.3300006330612 426.2176753332599 
76.5731486822238 50.11680665852363 97.28000635200821 263.10960767855966 473.1303072034165 
86.73719243508171 360.9846757077788 459.18397590417925 281.2246918752404 506.01768443826086 
36.24783317259599 57.37079315031673 147.44512611880182 353.2289415303152 127.57125574887445 
70.38655387568382 42.6239676041295 12.149353369916174 220.1816305213996 25.008072933852535 
129.6048465089017 445.27699271884023 393.58997406006563 133.08584502772513 90.26955963339056 
421.13263987291407 470.3866655942144 91.25003781328411 445.0270459812796 293.10699714498674 
195.97523284110318 136.26220398410055 22.967684203042893 19.305235542086287 69.94791947496469 
107.96591128943504 365.8859827978652 237.8419654874958 174.80625135028183 396.78936464153827 
474.3748103385327 337.0397402022939 472.72970869683763 277.7530888798251 429.19425524172595 
84.98432888341794 166.0956431690677 257.9360108431403 46.11834802982084 507.8897304570523 
342.4534612855967 189.35275227275983 347.4625754191475 331.72616131911 249.65636587838918 
24.195520626118565 258.4955421153919 426.56407352328785 171.85359885630186 214.3936440171977 
61.93771337637948 318.08742565259104 502.0465551335606 382.4437685598244 268.7504489366064 
455.7292144060345 231.91153593930756 15.464013924264322 188.41851094820578 51.88244815822334 
204.5926789968051 59.42510910865233 106.92900693826468 431.639723260422 101.16782261256934 
415.51161424583546 105.65006592117959 457.5144465050735 256.4906958777003 465.5664627887208 
179.31227944648063 218.5968980499907 25.112404363227693 378.5718293118645 436.29601573100723 
298.5982192023744 42.985383719610795 75.11951629420099 289.42782119509087 62.23550073242894 
355.6529954531795 351.8239731540675 170.4889393205307 24.410977885633947 508.6277696515911 
292.63106267032646 426.63912762240517 491.6386381486027 320.661576964507 218.9756992366118 
181.95891068592374 290.1712144099738 185.61072343569535 55.741477807792364 72.31328987287965 
