215.23601726109928 490.2942517480029 253.39698980545404 325.9016779884686 358.09515993635006 
434.08211859777725 557.3049345425618 273.60258356956683 609.3608450630621 424.54947044108064 
520.495545009313 25.691829573257735 594.7453808289202 90.07099517653911 526.8374784067466 
512.0671512986219 21.13330096930804 161.02964526397125 560.9145998511557 307.1435245801684 
462.2585259724087 544.540992571625 425.45974565180734 564.7520996169503 244.41813733503005 
190.42521784637398 550.621912141821 204.83359673510165 453.31648654530665 307.0203251665433 
491.1608119030151 385.5198852011573 33.13350575475178 35.43052265937808 157.66227654447502 
244.19747737938343 98.91079429431723 240.80324808411785 577.8684970494837 241.14668170221995 
533.349352467282 29.22894596557864 534.2167909569409 189.35025850577279 289.1128184055724 
148.85700782397896 573.6805074123029 204.06520150005153 367.7295563915802 583.821798901632 
236.0060141640222 355.75147551484486 196.18788605586892 199.57256291184763 296.43941777365853 
359.95142716824523 472.31777850109404 448.200828697328 369.03674206856823 187.71364098418678 
500.05295560500895 292.35910585305265 366.6513725675347 230.15497995774842 385.6671521766697 
256.3646854259136 63.69256790417349 400.75455180214936 616.0781687646761 63.08224780948107 
157.74852858373745 108.9733443465363 90.31364019445105 265.1789732467523 576.1682398405536 
588.7933473144116 425.2321074002599 429.3460403435472 323.6952615369849 415.7697564303062 
506.5932058702628 382.0801051873915 317.2477668077667 396.19025142813285 206.57078625806875 
375.61867776698904 603.938123090016 561.9348500315073 538.8026418982846 382.62293911329317 
308.42616078057216 354.6301908986734 272.0704933766385 78.20200973459279 405.6995080975845 
32.6921275819321 573.7042848717823 617.8721188893084 565.375061392085 284.85006181111464 
603.8041786687982 470.04473444274515 63.61515277074255 183.74711719806965 131.37433385395204 
511.6371609660286 308.75212217732116 363.20972025250387 193.46185112037307 145.39944677639758 
76.71531623991916 452.78027406374935 168.39504569012237 547.5513623869383 502.3539483402611 
353.1068715184067 584.2144615747671 104.32326871319316 422.7497304534118 85.78363953112117 
133.39057907355368 245.99436481347635 618.6130375496141 301.2355404590367 114.9218030748796 
437.0224330236705 249.85628711885226 278.2412981731064 274.9066706491135 230.85852208950564 
131.43831696158554 598.6883956562094 166.6838967909015 48.04046711002364 45.57351980217631 
431.15354785070076 501.6339956333333 286.1590221713566 236.39946869462378 506.9027977910198 
311.7363508019621 320.2901870897907 583.1967783660842 221.90474256199508 294.9753247095563 
302.4877321310067 98.25500352301309 248.45060349468204 64.68932069271273 418.92939036576314 
145.47819856600472 589.9750986455552 573.9563833208598 213.31078858413755 525.824078318964 
362.67166656800106 336.11027313052335 135.0804210257009 525.6703729262468 337.49597707019234 
612.4805430008546 421.10999165759955 374.20213323912225 426.1511930316709 88.4505568936406 
369.39331749920984 505.91386147713814 44.64912907909296 508.92715251738315 613.3679175596629 
374.3201117270351 438.0407130789347 494.3155891253273 355.4528598665162 512.9683233060815 
399.90963249705936 508.0937189354871 268.3967095199222 289.84764331118333 370.222960503251 
97.0789205645377 323.02924412788684 151.28751479168724 45.132487408422534 475.4817821374544 
551.0107482645288 501.4397734561836 582.3203690283224 473.83998752814796 301.1726114214622 
313.43797123670157 435.4830991933924 423.9265319737758 98.04300086107656 518.3276472688601 
401.5473420026794 500.7255908778773 161.1512846680065 567.8614568363465 614.211420935081 
592.5702351002367 593.7050971069707 117.25272237609298 567.4063446326512 520.5352494933966 
599.2336724094386 523.9811874524223 202.26989377799626 178.17935080173922 234.7912094572045 
408.74490883544587 241.2277159357116 512.7300840347989 559.3141125323954 74.65175913794636 
102.77509136069085 418.80541179877633 585.7256873177101 330.7444349128978 280.5531333589734 
365.7657003810125 395.3822848379122 615.9528405268553 20.313144318489943 329.78971026969265 
123.45436076766464 269.5673001468799 478.36296699129673 151.76863017966477 273.8364472670773 
344.32666038121266 295.0889403859468 392.1116058044497 572.1796612322482 508.2147314410133 
67.14734008472543 103.55664590313535 115.64045554952575 131.05917853720916 551.9189972810162 
93.0807369218429 527.9395099320222 202.02618173966889 587.8208556521192 594.0027313637243 
178.32442769397267 474.1050341272737 264.06817377383413 419.3728902810089 73.02991599439741 
181.67616185899115 23.481217128746074 617.742837328041 177.82931707133952 27.256302370732758 
331.93008035930444 202.40959464245043 480.2712797568452 283.5148652402514 98.01146146588864 
475.22746246374777 250.19507669573989 206.65485876734155 576.551194003841 416.081587100073 
507.1186024275284 507.25243810403384 39.526059466321485 559.1168495122847 453.0926426910912 
574.6486233849382 47.99889601333536 526.8158878336819 379.61524000513214 300.9870782895381 
508.6606374924996 143.02001573464682 307.1997324730035 300.9915466604201 448.5730172799515 
395.9867203104001 566.1905724968119 473.57687784237885 591.7056290014938 72.57754163428953 
477.4202385988765 601.3872517774249 370.8613334722365 234.6701294135144 441.3013425650959 
234.35537805844416 158.58344910497357 58.88806878333306 293.9475088588472 53.37650796430198 
450.63871065520595 110.74240925745568 138.9167664217566 460.1908861576447 85.66962577802802 
474.2785380445011 413.17134720469994 489.56844977575446 534.6100309805075 508.32219316741975 
495.8473946169077 289.88958487999116 43.45757032209042 550.4182620661124 118.42869528360309 
368.21552000641185 562.9968671542229 39.55635334512338 184.91771825297917 545.9423232452936 
149.06710778137318 478.7766219437504 360.598159979561 521.1321138845897 66.96787438987104 
208.7496968096503 537.9824893311319 483.6152270572781 183.59678966455488 513.424616036377 
238.53822155969343 378.957152534004 180.9129937239273 128.83825644771238 358.7869027516072 
167.38398163062882 274.3199219164933 376.1801491781838 419.36922524335336 573.7601431389515 
69.5613638758464 90.20650350875466 225.67038515815503 374.7119700252345 341.724384135887 
464.0969773495598 598.5990980795552 218.9912399030183 69.94299082642115 481.8482088536552 
384.11425437709426 327.17203879987636 411.3961551022669 359.2975626170317 300.09285818793876 
