249.76463541244524 443.38119778727986 340.73178680768393 92.84468156645308 161.70816824919575 
231.82590323516342 154.02087302184773 387.5536160554374 171.0110809118578 134.86172411474342 
187.51644607726 250.95394230324163 475.54440427269503 431.03243813145235 401.42489194279926 
325.79203816898234 340.0634009878917 322.42606485896397 307.8719636373703 167.05960133284626 
287.5379725493819 218.42012815108424 354.9975744028316 330.07551929265463 121.81250572003194 
81.71335080631907 174.60636198145255 318.7056218450785 127.29801783793076 213.59682583840433 
101.5773649774253 333.17355877649806 416.4001030881186 480.4177776239545 498.23585612137924 
381.9157716796652 20.38543864467234 108.18914727032136 41.89041637239332 446.9338957534187 
444.3901925939938 297.2979850896579 258.73844741335444 17.09750462225678 32.273453895378715 
34.26590314873111 212.34321019944917 428.8504707030819 112.01867983771551 102.5146043080905 
379.88552378570154 78.77402179398584 17.386381831228363 419.08969229136284 374.3932530715365 
197.45956152142372 206.52118282885567 449.2958872316991 296.15168616067024 499.14448705754563 
323.2163442815984 76.19663889459565 121.4979635019192 146.5640233152635 171.53886239481707 
426.93150416798625 162.20266323451963 95.47228095578741 199.51830237032613 282.80418043598866 
253.6416490241942 508.2856430978865 212.60247412655664 325.0944384926219 454.96134069291253 
51.30149062322375 162.58308465402243 93.54706640400667 169.4405549067758 14.945665264951938 
482.69447422365033 159.49097484310664 218.25193093864985 321.5014158783098 64.58859023166264 
140.54144492036252 25.826181902235668 109.77336491614658 97.88928727211942 308.83890372756673 
200.02225725471544 211.13925913456555 118.02912584726099 169.777048430846 415.3065414806651 
456.4428441112281 233.07170242740438 13.173752558874977 132.14418593024294 378.18095070176616 
125.22282110627363 63.83756414631685 310.80572480137596 497.4378461694909 47.733371925455394 
483.48321820274236 402.7921355688892 10.020075949586474 162.89725219089178 100.94905884870164 
28.08142406978441 311.2448003542027 191.84741564722884 372.6696632040384 371.3997865141941 
423.83490060841035 471.85306918325784 200.35661824947624 455.72071547857036 18.373877149882915 
141.82123977000893 357.840776274179 76.1948302044436 340.7736022407229 301.70586168989365 
404.0289811085078 302.71389139156645 486.2082962762935 116.5273795157492 83.92836351196918 
84.31188884219775 83.96753279444246 460.70611748101845 344.6914624111881 113.60643490263388 
82.68166764701355 323.4125038321749 218.63519957738413 234.4835942026107 450.37266497509285 
320.6372480677262 450.18685640476554 301.22914794539565 228.7834733060175 284.6845857319363 
368.7101213575144 22.309687744803565 506.4391367551412 26.79182650334149 134.1645318354203 
447.0063249204092 499.8926940675457 493.5781377069752 107.55112943138549 378.10439162073885 
57.60897225159583 163.02587722147365 223.09768585847277 118.84216928016349 25.939562232817284 
150.69755319629823 364.13664261997405 87.32174883308357 41.64183368554363 121.8913557465081 
369.6286187859816 456.5852109280318 440.39541430655277 230.43870684405775 423.284976401936 
103.55919703767029 95.76897951227014 429.8466804407952 202.2422420132801 275.0709740256301 
128.09069959266014 127.48851925000903 287.24178815001585 504.13923815481724 47.6753206885449 
277.5454615748577 461.2676365852261 434.742630712969 21.861088789731244 133.40275070795246 
148.59575368374948 338.26920751479645 80.3096011541024 505.2033047860369 371.20778533674405 
229.84992013817322 198.02171611396008 493.26184139293855 224.52238945678204 117.77922821912678 
320.5226764502883 293.0427746072544 499.3974003765646 44.22608320231696 20.669551224193274 
292.40498053645786 202.35584529015748 200.43821288195173 101.53401341044948 306.81644728537475 
350.9888943429344 24.642995558600937 84.81388232266134 423.2421698963296 46.489029004739606 
315.8480207849194 149.2261538770384 48.40810876852119 450.26643955194226 21.744353579549117 
208.33497376132493 382.1445758192202 416.6017239513457 483.9157890720175 442.26747399626703 
161.51208668647598 158.28822307188034 48.55708093028804 222.77074541693486 146.41280854263476 
447.2168372743358 75.90432995094308 496.0629373417975 442.3906976977129 476.8567449867373 
506.5807359557819 312.93169362693334 381.32351244128046 138.5848347880097 268.0606497803637 
320.53304675843503 305.7097990271901 88.81729768456563 429.45521417995684 155.34385624580986 
227.25395056812835 108.89623953123494 137.82265337300242 301.72091669472724 455.45250007426006 
384.68456284078746 494.2063696623936 105.51994475649228 416.8847809305573 457.8222945831402 
152.60389567880793 257.2274175956958 10.910993112500314 225.59730001940665 50.06993146690968 
184.05856520567687 472.48096117164704 491.38373426052317 301.1565112333689 415.47450038911916 
337.75648445501645 192.60119022206246 414.8934656475801 111.57164344709602 233.25070342552272 
58.14769722458245 117.51227294279936 68.79664518601192 334.1872596128278 72.2598083078928 
189.11648333503578 142.43984235117716 462.7826767871369 246.7527330682024 347.5017392269008 
150.36037831594612 422.1549010727892 328.59372055891663 337.32865394484514 447.3962205755426 
286.56121525262057 194.76193591140122 507.85153049879614 484.9119880823752 493.66860281569217 
311.3476589621613 287.40615703559246 294.93798015944816 209.5597062188456 258.8442608842986 
87.85976105806569 463.35330140221964 62.177577849257695 450.58588024195444 297.2261988936849 
281.5663364697728 463.9121260145878 296.28390801360234 143.64960032035384 391.14564426429354 
369.0317040423397 187.61563141128278 338.9595485585663 360.8544769709479 436.6626591333537 
307.81782194138844 35.000885152350826 260.5418779731541 195.0201661164722 392.2387330180902 
250.9413279816268 421.34370940166235 427.59342724490466 191.80137080611024 54.75996585137298 
196.6465596071481 126.98828378456355 16.331298712965285 407.11982162551936 163.26770622608777 
487.1304434694765 359.70210370299725 200.82756597741496 327.30431237233086 29.532470157384353 
233.75154270944546 154.08348059252697 24.104878887234996 84.32755722140644 462.92165750436044 
340.7248832803811 326.8161860601321 471.77329434081645 316.57577571977504 265.6660206991435 
402.95881108192793 354.9285870625529 480.9457869627714 18.737697029208235 383.4842497526363 
359.2066892020562 497.6624962338601 165.1296256727377 433.7669633989394 179.50765274137908 
420.8225143718255 155.6387089855872 340.9842789397373 20.633263326579712 69.54454361380789 
