614.8432982788795 47.9898552462801 536.3277198404879 550.8804947260616 85.70261984585915 
255.89163621963166 146.11946572325465 488.49045892245147 431.8862791331159 600.1036910714017 
92.36822957926947 285.92463249892324 194.45022457335915 315.4709072234362 371.61682837490144 
280.64770502085855 153.2910066512337 451.03211843008523 582.4088693821636 79.80490985092004 
492.29370774648726 526.2173407297948 245.7285130787703 551.6914079468148 239.71192562254998 
106.61273031712918 248.7189655710194 453.5864463631472 317.37325004594084 370.38730464128196 
220.27363735116913 242.0459717827892 282.30439845351935 286.4749159491155 597.0934335792228 
561.7474889267347 594.3693652163763 175.60546940495453 288.8042870443746 458.9809112230923 
193.51455819240513 375.27887947552176 200.72840346638063 515.8792338173153 320.2146392145635 
279.7757611825899 222.90306654155447 51.48261090143778 462.7127695156161 176.29841696696306 
243.94078084768722 485.72968979615524 64.64907955438176 48.33596824486666 298.32446143179334 
112.46999386989086 576.6710061297465 467.3473935660341 505.73145266533055 477.59099662231466 
185.61936542129789 43.85611234819742 410.98001813556914 308.3537460716818 104.88383613528087 
259.05003255946167 483.19225850134484 490.03067730310806 59.521663280201146 447.9806163866523 
282.7670588487358 535.939476787497 349.73324333973204 55.454931434947156 554.7567587243457 
146.96660503579966 426.28840583759876 235.71420126374673 457.24145483576774 406.6744797791192 
261.49715488010816 616.9928272744426 483.2946430079583 508.08568037018216 149.31860967507689 
402.0514806916568 185.13385457523947 458.2383678216678 118.20178691341862 525.77808019142 
359.05006979357887 556.6062677658725 290.25215623712336 140.95039249865937 299.70983614411773 
593.4773347552785 70.31760720954242 53.25397763014819 82.4235477771647 64.38445859954908 
198.58759360882127 76.64931892330245 581.9738184379755 246.68231774747355 450.2992052191027 
230.18172988687212 86.5977215182681 134.3639415750618 316.1439105886017 247.32798083192435 
315.7165568835443 577.2107244900938 546.9687879844 418.97322390812315 600.0068600056392 
520.3697621683604 596.3658762543512 341.11206562638574 532.4066036232124 590.4520874290116 
344.743511999778 88.36754877720286 348.6500526497454 24.245743119475453 238.47327135830676 
84.42163801584759 445.92535219186175 86.13733657258656 127.70647667783571 290.45125265570607 
398.24823340161333 270.33573137444216 236.45375674088098 82.66323977527856 377.1459304365931 
133.99191886663036 48.52158952785759 340.022371413219 236.24484971371052 557.3084703114882 
42.899570988395965 413.2658260121882 68.35578521715021 176.7325987329924 562.1920392959107 
196.29817977135903 193.65044903411675 287.3263699427383 47.687963457412444 271.06037253869675 
487.52306170505307 460.40803364908095 424.6626676392502 446.96670519529306 306.7307849729815 
272.5579471036684 571.5053492546068 166.00328398904327 422.4066655227322 492.08312029797145 
356.265939821694 194.58198218099116 118.5389035871473 219.03397586344315 74.21519958324305 
373.24349092382374 164.51018206624963 424.8670442338769 70.01176029912715 345.303113993442 
320.29082980333004 487.84751355902785 78.06977027425012 135.53339238315212 582.8794607866272 
270.28513588099304 364.7210571992113 599.9769496308498 532.5850372641379 33.697538702521726 
305.76545839553364 317.98347848585337 287.74392254431143 237.9944032256141 383.00304181798697 
47.5646755281538 126.46572394867052 420.7764555715669 533.3420417493769 215.16069118921942 
184.0017554396632 102.84290660441123 534.0762548920752 460.91204930861875 584.329754986901 
616.0012374950692 457.9255285666818 210.5305902645517 114.54869960613286 299.2728012452847 
581.4333504726474 594.8634052236013 100.67742018933369 259.5884189406021 280.31489902999687 
388.24324849256834 493.4507115387637 243.06720402298464 395.34970233778245 386.7194536322311 
522.706885592535 312.9728157040889 502.41243911199155 197.26286266763253 228.9602620888654 
180.44068326382296 70.23560495544477 359.03873594021053 530.7524776013339 184.0699061465373 
39.49798412411037 67.84115640672151 236.37646929053062 264.4736979349068 306.83240427320936 
124.78292722270962 558.5666075027158 29.882092524896336 147.34681716555116 480.3345255893067 
240.7489989637731 158.8905883568905 359.25223199930497 494.80588371334636 553.4455464577778 
136.44862336996545 64.19132529057842 586.3649130170988 569.425603454182 69.18145371637112 
446.8615803034373 487.68631445984465 476.1988855688619 76.13932443285265 267.52644468661185 
282.3244793488828 234.44350861546633 501.06767944946694 531.008605178684 341.90435877831874 
240.96276595847982 342.2920175005749 445.75879204507646 35.22392278894766 604.764537276181 
446.31131566225264 556.5941361127191 30.361877281202013 594.8569012117749 161.19371201742007 
284.69961176511714 560.8847023389679 568.3539468388919 295.8681054223771 58.48650382707686 
177.24637154220383 437.4852446610229 181.40560974520616 368.901454053559 254.47485615929844 
284.1030301856121 180.3843640875382 432.7800743257438 277.2388319116329 480.28052055924223 
140.43175705954718 497.83857945076574 273.38869667163056 23.59548435985819 38.03749956444327 
572.8975294862174 517.0652318501413 345.69244479932854 208.73152816641007 516.9311121341357 
172.47014547454626 402.7175425549774 509.72038360462693 570.5359433668608 299.39176265820413 
206.21969329323974 311.0758006581624 363.4130001137667 591.5799360597362 103.11178447212757 
161.56937297145072 581.4565424718451 369.0638577751675 63.28566718506619 125.24689940503302 
227.04365268018677 95.50642057832889 383.4747546880118 134.83622634744444 556.118279613783 
441.68900217751553 565.9579163171854 58.08235795581814 525.6633847442508 266.22029805206466 
480.698366680626 323.1035817058614 535.1551096153429 434.56317041416486 269.51145787796486 
498.86227840076293 195.59256525119497 147.4729376938829 400.85495393222106 576.8443383632724 
609.6970517864634 199.94115702933883 433.8356728362781 250.04062497274555 196.8745277833734 
141.7385163849948 600.0261424530642 35.324715725431325 246.53494529985272 460.6505356224691 
261.6850796761772 435.32011611063655 533.3622925255124 59.499965838089814 54.9754687300784 
285.85110942581787 278.1290628676619 448.04947453289014 276.7738289695252 385.0709161505104 
87.6489252488943 20.87855510309305 223.664729689315 50.360624157452705 57.46133685017177 
342.3282079836511 341.7139053755467 199.0931489964501 170.84176130223716 309.6073095811475 
195.61410490539404 299.355412838087 277.73143472495775 415.1543280873338 415.7971398853067 
86.72303260526942 87.18025768080929 479.3481369067199 132.10600188408011 293.1807639942364 
356.8965810985192 174.66177701447205 152.62089373031972 384.2828890950086 613.4977369243288 
412.3527088716617 96.23264676973724 450.6469328937134 287.05502344236163 212.78360637979634 
37.55760618026822 149.87479354874142 93.5267680337947 30.467121742966935 572.7874785921892 
344.9946940749152 48.67342318547785 454.928553020137 165.06799612345765 35.51805373867179 
247.0483140473495 358.48025003760847 178.0002084721877 527.2046823280905 489.6578368871021 
512.0012121169157 555.8580023666265 136.63039113041853 393.8847401524905 239.81595021664464 
459.11573601046734 76.65046401406153 569.2685244181993 34.7661071765653 313.87961911630407 
318.8529528075906 192.73635599919885 404.56885948874077 83.81671275401482 379.0953968349239 
266.87850815576684 570.5554467625062 123.17525560280379 322.21890844749225 394.86194371917054 
189.8840981771412 319.4899092017437 432.03312159453645 455.5758429568164 222.32060821181207 
584.5660445299421 542.665994446176 112.60286484944913 412.6806655437195 502.3363361757452 
177.37199440283572 40.60971761143726 610.02745115458 292.1838445406317 190.89266097601956 
502.75102779240643 94.71850671836569 596.32507138428 161.46307934436464 262.68013296508826 
34.39529543311395 549.8468875245128 328.55806784498657 164.76050570569862 540.0095055435652 
341.99092081661655 222.47201006505276 266.071608215301 142.97969306102434 227.27934345887482 
81.82573693259097 553.8030059878732 264.5720322952583 95.07570486334052 505.09457275575187 
431.63032976715976 598.5989361077155 256.1745032695277 132.25102660545554 108.66699913464875 
278.52936367471045 55.01342397199334 302.61601500287503 574.5852835597088 50.10434074139614 
66.10179875869198 585.0123431758448 194.50066342805826 220.55182754990116 583.2591116130598 
426.314138620669 507.2130087650715 105.49424931608318 60.2574673749291 114.486084932824 
360.39855158114216 44.642730560956494 311.4613969080463 402.20610046919575 266.3461650852586 
607.371754972949 231.05913451636138 287.16531427569663 611.8320016899318 359.2678853053451 
139.47888867836025 395.1390061946441 305.7258376507456 310.7463141589 615.5839512689641 
361.92226970842864 197.9233237851619 518.8291170824475 223.24031385976213 360.22423877744154 
153.1975124655932 263.1788849641697 290.85065861884436 267.6144986479894 413.5636770470943 
167.4813523364942 452.44833428647183 321.61553529921133 32.75097720896594 587.2710517248082 
608.945233921683 58.03487479716421 316.3748299084307 335.2934899635492 518.1271446629386 
278.63078957683405 351.4037852948338 565.4977201476692 371.9904549054652 344.2052363312836 
