362.0686695079831 187.0643441900997 383.8820411913138 407.7578082275599 223.0296279934935 
292.80230657106426 476.21802724820697 19.374528711644516 436.60689084599977 49.66044559524329 
100.12701280162533 437.60012709833126 144.8480738719507 119.73722596331726 439.80781875853813 
82.76644032486217 128.48375699780544 484.45441465991144 336.48349014125296 254.31654443643635 
73.04875417450046 415.76412467724106 431.61311231370644 352.39334630503015 245.92278451133714 
487.6697517897625 425.124430706038 359.4685332995291 273.7433440547396 348.7636247500385 
200.62027927518338 365.21481024211823 334.64400417306996 101.48475738279372 194.51211537451422 
42.82475717987737 204.7713196678502 258.7995415738184 11.033573138004673 109.97936769168896 
223.53345708858052 374.00879570773026 410.0873218760793 432.6692622579866 367.03352148053534 
64.38407833176822 419.87830922668616 55.07190835964381 244.1409490877579 274.33652886272404 
451.2864781183651 63.68785300940376 454.65389581186133 248.821253147605 415.93213042111097 
318.9390497876977 374.0058064096312 312.68043001345825 474.887037517674 212.43257293360563 
53.9693810773924 176.62835405733395 169.98440734116122 233.0926478259063 53.81083755778003 
115.58132631620681 314.6809012438385 250.36428667967928 141.34789775842592 490.0356788483499 
146.42373201190168 47.691514672759276 428.3643560400068 206.19708700984873 367.4760401164056 
264.4734343493134 129.83447562393997 335.56416115981636 326.15362049331395 29.701161943616263 
261.41039437743063 239.6694827538685 215.42620066814754 195.47885739425922 214.62547722706003 
170.68134850561083 290.83624938593795 203.63177365845186 274.2669864484241 443.569093277764 
234.6887065517687 243.60477433935972 267.3709586542391 400.53537831725833 418.4643789493219 
484.8541595544591 158.29260384906794 13.418378825859437 440.41049312555083 291.93594730933927 
29.305201054761856 94.76710474375388 440.26133989870203 455.49401282376795 11.180735094254427 
213.29291912281573 318.0421181729054 97.3508121166458 353.2053049171569 34.40038738414702 
108.90922916623285 32.904148176022154 447.0825219777618 431.50067457351423 390.98002070202455 
499.0328885600203 244.17792532361076 338.8104264688871 228.1051618898664 280.7149176662014 
130.55760582820253 441.33947458828294 274.53682293466494 394.5602660428287 449.27415190767556 
422.7703195785743 293.4456578609757 112.46277076007493 484.3530234733613 116.93260264830195 
466.23983567154744 233.5731682364442 345.9324999876575 33.57567226205332 494.6392034089173 
137.79690275793243 321.0102981992461 354.14242223183635 122.4576217480498 279.0197048221014 
379.25002405155624 118.24736313668676 329.0468434362097 401.2640474559474 148.3005878681101 
446.5622782945829 71.3546958112895 385.97971717896206 298.08158712116875 270.81241504203507 
76.55102339645619 263.67141031988194 398.4880131300248 166.58639490736016 312.1743641438878 
48.06677389774893 439.9671779619387 509.6630132251363 385.7524390711423 176.0276862917784 
331.4210874969076 301.55795904094595 250.84972316086433 461.40823043827 314.88745122719473 
134.99365938151453 221.49508413511342 96.06221810899312 361.45226045487556 394.9953197175471 
421.94270109566554 356.20352801947695 237.84730799755425 416.3163833208207 423.7193725761523 
297.3223212126034 58.185592241375865 442.8963211553528 446.9112956122271 345.8604374441253 
260.2876992547166 360.05417989516934 127.6434738043981 320.84868211293144 71.05257891354526 
295.1207140268167 478.7048993096525 43.709653914677226 150.32541759635657 307.21247374978566 
295.27262575831713 319.42885628921573 227.7160867296048 11.850760314668465 382.6877689988629 
197.29732933322506 171.8211342371495 111.12876463286457 108.23672775574104 44.4290183603338 
56.30238466741893 425.12990138049173 403.890597773024 90.25582148220795 412.2754987567029 
145.30043463819118 471.95597839668187 225.20367767922215 481.4613309595738 155.4796270816124 
70.59026065226553 461.7525371513408 409.55343197955534 391.29053484129673 381.1346069466992 
91.08363129718582 444.2547024691033 333.59437084765113 84.21760341753408 193.51691018894968 
327.43640709627556 356.7118903305685 396.58284348714056 285.9419866600335 195.87258122418692 
277.1145983548046 445.59344972222203 14.445518203003761 430.0030207741772 73.28916973073456 
483.3668633366438 425.3383322671355 15.17796574988133 372.4780041161779 67.4926588435099 
472.78528948306985 104.83758231145572 424.9991837143348 460.2870000418348 46.24105256811316 
100.07940230592109 411.84884951578135 123.5363570080014 425.8948932754467 185.06682141758745 
56.289237412533765 310.6840071450941 199.32769396490283 382.731811119231 135.125378956257 
383.41224915939466 297.58415322399713 320.2248450051491 110.3736745610177 104.57343205932528 
433.8635197549356 18.565421929473906 227.02541470317104 284.4231043004458 353.03171866996547 
145.94602634338455 47.60846064407131 282.10815792908244 425.1582204878195 299.14283002350527 
19.250044744197716 489.3633361781298 241.28072931517053 502.4861953772563 293.9440024772223 
48.36904269753843 494.600656800945 238.84415413228203 147.72543719080565 180.72371283961064 
55.312745194764744 452.07187316695325 469.4559844363248 129.4837261598111 272.27178002033486 
85.38038187190315 414.9227998488991 341.22418388314964 159.69963276046533 345.0775839754655 
446.9543964217259 140.0734820680675 252.1356671968037 504.1347425412991 107.25645143080041 
270.67488128330746 35.8337386250938 185.031442444613 490.6706753264195 312.02827547588817 
489.8087339073621 186.3323345192784 17.55998578212358 89.16514105353667 394.7360790222323 
42.44867685811087 225.02293393115463 334.6099023873125 192.90695718380223 131.03775766648135 
422.6406595086977 476.5807804394535 307.44271261905976 267.49344239424937 183.45939271049826 
55.88326758991934 453.97133581117197 350.9809034691425 265.91175340909217 398.44938104833994 
102.96921100069144 251.46864497141664 187.3798320106273 295.47577459491026 375.9713980063343 
252.21095880401728 295.10323181299776 68.11380515758285 283.85326035363425 487.13397312684936 
305.13528439097803 18.6648463106479 340.38691666409306 437.57838118060295 405.050375725209 
395.2337254099239 209.27538317248715 177.85196283996788 141.10573243646368 121.79360997726145 
167.86764963166118 184.04511740684546 435.5605946661737 170.61538023706646 295.75779861633794 
145.56232254300394 204.85604673354894 79.0146308783201 421.4712651989541 343.82292784259175 
174.3584581873025 237.36938737357622 485.441402888405 287.58419421866466 110.36995911921565 
200.3618103135737 102.47941182651537 419.3397603614323 315.1086676642672 398.396730945075 
231.94085846305344 332.24673428973375 355.36220158797926 251.1504664592125 488.7918315282358 
62.03437146132006 120.51731482028443 310.2028066467281 253.77784803953944 143.34770510151566 
430.6688145822466 182.7054006752595 365.89870689867206 244.97896728125824 40.511169934354875 
113.03966284776689 305.3923777384841 323.44020738228187 509.7154421267913 224.41725100861026 
400.4310294434167 359.3300023597964 35.49515992194013 47.37635194036887 215.7323195308817 
365.9475499564306 468.0638932041171 87.12683114320518 406.28916430116556 484.6071398606272 
354.6879133534985 306.69735840528324 444.420958206354 106.10626043564879 483.03680173264814 
27.83768949062431 253.34952567580248 82.80029503418534 19.535458092555295 376.62920417703987 
405.50276267277764 220.73717355814264 463.42031436722874 25.75675058536219 168.74932200031216 
366.3048028934437 262.20307527859876 110.39513817648404 308.7671990480601 26.844705209353773 
59.24504081522224 319.66307976297685 180.74952356941952 89.6847436315189 169.145179269641 
290.59802549463643 268.65071592922527 329.0442115413245 501.64500962317817 56.604797198145306 
455.1758850028945 15.264362451150529 279.75346568831327 427.33125368865313 430.71689066293715 
65.81747416890465 22.794856676775712 301.9240854232699 274.4380560671347 302.5476247842483 
390.0830556253035 42.61783872911167 365.71459133113973 504.5963077175097 105.9250340724972 
160.61035365757232 409.1269782954103 71.46591062679657 311.6568483416841 191.17765981810547 
481.21438914510304 235.6743381512044 315.4152219002551 259.98151051789944 132.19022095477555 
389.4537846591821 335.34791483206516 467.52274484705225 200.82297910400482 214.94682894653172 
456.96582745297445 343.6933637376943 125.68552085525619 432.35297253710405 150.34015204070178 
249.38079648402055 160.97583616075616 105.47872275015051 317.84761284132304 227.07713571825977 
30.11249247370128 69.14439806674693 468.16690343262167 427.44673164786633 175.3078945535253 
167.9007085304776 237.22947709062203 363.8051060881871 386.3223929082997 120.50833714356779 
101.82782531654505 371.4623945566629 216.60245519392396 449.63349676255694 256.58432193942116 
273.8844147985609 220.00602734543833 41.21278158695823 249.9838163803727 382.6244396251334 
166.318108770311 22.940194612739653 100.17305721909291 82.97894007226508 18.759798764191974 
276.32980052923233 236.23008121975758 382.32023147418346 81.6938571054373 21.806755046140815 
235.60673463857512 423.05932943848427 351.7298907025748 41.28015640397125 453.4473464862113 
87.19197439408232 230.43236943849658 227.65063769261488 264.4868360512934 444.38113542362817 
381.8345197556168 275.7059482910174 263.23118122597236 420.5289110738076 142.96128794990557 
