36.45736060472704 422.4312605959659 322.8695374022989 247.5492767042678 416.8164529053926 
535.2843187698454 593.0003446428789 20.58873814166278 210.47344704338974 214.61647190574874 
584.6042451094515 236.09124961471323 609.651580099989 236.45597328679133 81.72079544929477 
72.7764035861029 472.4620451319043 142.3338668585792 573.2067684169677 521.5518637573256 
367.3243790193836 149.36300898513394 295.41704753889906 561.3333833327673 553.5563867069651 
615.8224032784445 209.10192403785538 557.1670483251004 531.7271083775315 433.3407333455138 
419.114361790044 526.7473949349819 147.36692842146073 66.77272125173486 295.5210933657684 
271.4254456638764 581.6280868723491 112.86210266715109 104.71130515137024 117.80015673080203 
112.48994698095932 198.78496719384054 309.0966360225758 565.9870755826629 80.10211419598093 
191.6673040148089 243.9961447489694 490.6580721078774 39.859800456390104 440.1702554934742 
430.30020752817535 290.9457590586841 236.80462294131326 319.23718261467906 331.50689801145677 
335.30647870288095 284.9450031944139 499.0959510189985 313.72468157921224 197.43538627375833 
485.0896374006543 109.61040294048091 517.2352042158443 129.32775310814358 364.7879846853819 
521.0746964908383 298.2098870430747 367.5798099349431 573.9713917350872 612.5442764345488 
249.17400404316857 619.0231593267855 619.8886620289851 348.7971623682355 556.8121462561221 
421.7865382230318 74.92980868017084 237.0194480888864 405.70877233401706 27.878364980424003 
240.9317410609749 584.3085684241781 286.6174313418632 403.3842407799473 403.5596197409192 
427.0882764832995 217.85271084565355 492.37281749443383 360.35771484851705 353.5289188939757 
238.39838441824276 240.60393809492984 56.063319101038374 390.0669296323486 81.32561043809895 
25.13280591717844 508.7777160163702 473.1170629561883 486.1150452318456 485.90389664126104 
160.58779478422957 377.0713620440114 358.47639610021355 305.42828436912976 136.23203067891228 
319.6784240837194 336.25935327424287 432.6383772850203 243.40478458905272 615.8968555953196 
70.04954704075897 597.0134615922285 98.29240361811358 101.31652790517172 77.04334838455813 
509.0701162664664 109.9350629200361 396.2414952638871 576.7951727973712 293.3110984849541 
207.00805871153733 431.5282615212437 67.43116371556934 249.72645381742862 340.61628251910963 
607.2732176171095 150.92286606284955 189.94060750042024 346.6955463690757 105.44287768720903 
466.01476188951415 544.0993115803791 501.61472590721763 427.5407852165565 137.39932775841424 
384.5898868522721 54.57222575344127 178.40478409461682 99.73342775464414 262.6889249518753 
170.3806849041658 467.22838742421766 205.08972412079618 504.2308492952472 466.2335918907874 
246.9000417562881 172.43697750939293 160.39127223584066 76.04763362959054 62.75401513209616 
387.74278921420466 159.67881982398916 525.9743537941424 431.8266127277463 513.2927601900792 
557.2292587212141 54.67515475191536 423.71160494480336 614.8196594561284 527.4955564209517 
361.9531429002509 364.10839739821455 65.0363755262236 296.42770485779926 119.33563239634078 
132.15694834480502 432.1665072121941 159.23609501907103 126.20115133316277 272.6529853552589 
112.0661752187049 279.83201783090794 145.04460889385345 94.23734348857785 412.53092428625126 
318.03930692049664 599.4743647184432 274.6532047596969 348.38148058552883 480.670640412114 
268.5350154776294 244.16492257845016 155.92196142836815 342.5622893707867 460.9496264764662 
568.2322958871839 85.36454786765007 333.6612726157683 502.87507576115337 300.5338470351077 
379.81403396711084 138.25835236010465 122.76442183608296 427.4330441126053 99.40635719076693 
402.4608169874435 466.9299401125851 74.98116036439038 399.19451922252 495.99888328336397 
429.4004843866773 499.55043871348374 619.3760240174155 224.4590877574435 129.6671805654722 
233.19145518057186 296.45513063640425 338.0389598192182 121.9109792994485 304.8082642941013 
553.9341057806107 432.9162168041525 69.30589145595579 208.2452605088094 281.1269658019368 
191.32662609127792 166.99166107892506 238.37931637630027 58.689513126392306 456.44393077080946 
347.3096237742335 166.31114489641234 539.4594384989304 188.15597963305063 250.8955543395262 
574.7494333819424 143.20026269373818 495.83041770376144 97.2230861750556 124.6816470916394 
73.84283098423444 94.16401104207398 338.1916269937467 174.42524218901326 217.81803119871026 
278.2091095476258 528.3525277106339 122.15289570922701 232.07469452502434 463.67119185289476 
395.3670043467838 592.985711138689 480.3762649536729 288.57108098402176 244.2899319260679 
541.7479849378714 26.469932772089116 422.36574357366857 379.27298784815645 292.47737191256414 
442.7222516232845 378.62124789815283 576.2809373806674 485.78414652280213 342.81464396904414 
177.3317711706618 190.4149366148472 255.15336674223474 497.09282788183236 252.9783431215004 
231.43648012482484 503.2836062647369 539.1637532899042 154.4210777163738 491.08575691611037 
299.5561734297407 222.33385261201258 332.71863815818773 555.7882430690544 369.72825467531965 
334.4823682497927 62.96872725650507 488.34319184492495 198.94415570036196 329.9634501155043 
296.26332595839693 112.18781836788435 619.1579932082443 87.13087954052921 587.8523693068161 
181.83089776504752 502.0618271290618 150.07900098359573 397.60977484521095 473.04961411104006 
328.61291252825504 363.1938207021393 208.89534733161767 176.44322259704717 356.25381522952955 
557.1078403947266 461.9064792512961 127.9375366143553 454.9191463558317 494.65247321924267 
47.61345262309618 559.8337440578499 432.9226911087141 35.40177559765754 458.3717564392545 
