402.94611990388455 228.96645021844745 282.5339083283988 175.83864104704583 284.0260399461739 
279.2963414961887 48.38388532406434 360.93054283189787 88.47530797130369 398.1580459105279 
291.1756746317365 198.2396255330312 227.78454669097695 427.8017192583538 229.56051496183366 
197.0957554859587 486.4460460184203 394.81102662262936 243.94881089834163 231.46423558904343 
505.6654013047623 477.22090920126186 497.07798439563715 173.4606236190527 10.023798206428726 
156.4803787611892 126.63228018028465 56.43721629823039 216.54362066442155 24.963364978853367 
11.867645779545512 300.8440949202232 490.61092460634643 344.7307470990095 241.1949726737536 
161.06797293154844 438.2076363912812 78.2468373169114 32.674569699844824 176.4519610680662 
248.90676901389907 236.7532126225324 484.37533774241996 34.69938986030501 229.08357841787517 
17.003248193540035 156.55133430040334 380.86470452426687 89.79603861666584 322.06028260329543 
112.58929754851576 230.13480674484882 178.78757659814153 386.8626896995005 170.67991906446056 
267.6035715211537 471.0652110178738 354.2589029037617 243.16615544427017 443.24315572469806 
257.5063299554911 272.21553640253444 265.5217144287098 395.2747334075304 95.94708410083973 
107.90170485907102 341.9126816629287 360.1421664778503 214.20565672139702 499.35273454560905 
359.295680757287 352.29154752865617 179.4934501076089 90.41630419548935 447.0053576829046 
21.959709929787678 273.667289660115 419.6841898479883 283.7846529503752 224.17501822321222 
138.77591255824217 459.1127600189726 379.21070103396596 457.1732992386313 382.3536968874078 
23.035265085000248 81.46969755516707 453.43231265093357 456.9148497360407 393.269145445073 
188.43371152365117 331.5276623747654 253.1011405248199 131.021391171792 163.99264531376645 
342.0134171325817 470.936386902969 171.29520379315508 86.59445751036526 365.53049432835286 
458.6407012433112 420.50086253158673 81.94675071925299 446.3459600792914 333.4576715432078 
202.97422818066264 116.8328432013495 269.52632561480397 323.9476225988282 27.10570126444472 
155.9954823052026 114.94807857671162 398.2000977322604 266.7829968793722 309.04135208455847 
446.34842884710446 367.41859890549205 478.8506832487845 219.31936543756524 418.6194962620033 
279.330803731867 202.28979796124779 71.72607569353883 211.549005518871 40.87731584549852 
209.82044049398846 221.39108995044887 223.21068210853394 334.63217086453574 307.6306810696355 
70.19580791318296 281.2073736013623 18.408061276505062 403.93474777751123 443.0785659761328 
154.97013109646306 322.4995583609796 192.06373142483395 341.07920110106585 277.3163012407673 
284.0174248629572 418.79188553307154 73.07629677305054 208.46977794508774 482.76706183891196 
333.60157840558503 393.1701516624305 500.74653498454427 268.12425416941625 39.590187023347035 
395.6646848468423 247.1085550828208 291.36145560068246 91.7218965626183 44.60124744075665 
221.78933999758615 282.87755056621444 313.12761706026964 339.79762526705315 146.19403897544598 
138.78428522214296 425.15614120811614 246.34531790210704 238.2773093132429 506.3026513994344 
211.87958716388727 139.51811423328797 328.6022406920054 182.42200984990308 64.75637329477917 
142.0452323995731 451.2831180189452 265.2754637319246 378.154772466504 355.70205543004556 
443.0155295324479 122.68428733923407 391.4401847603629 114.17165221988523 208.39658372958684 
367.324798084124 198.32920230829004 509.1301263344918 434.73867109058676 152.97048046371756 
269.2137802170391 66.50903071012303 164.57970924841302 231.26291020811533 457.1583227758468 
74.88782741175181 259.0930058293994 333.4641420527682 83.27317400739003 192.9696938464604 
410.59997191102184 66.64408325684323 322.16728822875876 88.09362106546308 487.38870483873336 
138.75571375032098 233.1835138029054 482.7360571243009 119.04161746861269 352.0513881842381 
408.11935887955167 110.95520132178353 55.475218259418305 429.29334526242445 331.1365270196917 
211.73095269277118 457.89516340144655 362.2115366945693 171.56235599828284 311.15390542272496 
404.86977853804257 96.66184526961106 355.2860863261046 170.41611516234622 21.725011079680048 
493.9378975215426 385.45336473156937 401.55723380119935 266.46412615045796 132.68965597062603 
508.1618979675934 377.91871805218756 30.415148145122743 140.9016052566272 443.86144984276547 
191.25950451480966 336.80923055130484 372.3841306542874 30.161338985790923 32.48614341641958 
45.493019345012534 367.23078035306276 246.74854456077134 497.950601160193 96.97824849342611 
160.69479019922062 218.11941725481543 448.2687872089576 454.03150993845617 129.9379310860632 
414.8284492075385 171.61292230133333 24.007559529688294 193.10474849127363 398.95679845543157 
228.43101587088725 470.12902304908226 300.1754294357975 84.50401038478799 479.5463498726204 
444.91591222482134 280.05028068157964 108.40602292164868 424.5902853162662 403.967736645584 
233.31913167366412 32.88233543361895 102.72143399703953 283.3017220554713 285.16852310939777 
224.8158564804032 432.584314282929 448.44992466615275 137.88012502540676 382.8681874533294 
493.46065638375245 448.5185172731752 487.37322665863354 308.0337045038087 374.5664424334559 
233.41246522138164 493.24458923520154 138.3354900989341 344.447843085584 117.42843214741987 
116.75873118610468 393.36618230623156 217.42910242579066 397.4194203916405 266.24178420658524 
299.37696823441064 419.0656558358988 158.73388542452636 314.3320306363905 490.61780835857917 
377.55537242589253 427.13278075117927 176.5402195995802 307.63192816696505 493.06127744886834 
449.8873955735853 265.5729102168135 38.20786874857484 61.898724546424354 14.261303838444308 
